ply
format ascii 1.0
comment Created by Blender 2.90.0 - www.blender.org
element vertex 837
property float x
property float y
property float z
property float nx
property float ny
property float nz
end_header
-0.187500 -0.250000 -0.218750 0.000000 -1.000000 0.000000
-0.093750 -0.250000 -0.218750 0.000001 -1.000000 0.000000
-0.093750 -0.250000 -0.187500 0.000001 -1.000000 0.000000
-0.125000 -0.250000 -0.187500 0.000001 -1.000000 0.000000
-0.125000 -0.250000 -0.218750 0.000001 -1.000000 0.000000
-0.031250 -0.250000 -0.218750 0.000000 -1.000000 0.000000
-0.031250 -0.250000 -0.187500 0.000000 -1.000000 0.000000
-0.062500 -0.250000 -0.187500 0.000000 -1.000000 0.000000
-0.062500 -0.250000 -0.218750 0.000000 -1.000000 0.000000
0.031250 -0.250000 -0.218750 0.000001 -1.000000 0.000000
0.031250 -0.250000 -0.187500 0.000001 -1.000000 0.000000
0.000000 -0.250000 -0.187500 0.000001 -1.000000 0.000000
0.000000 -0.250000 -0.218750 0.000001 -1.000000 0.000000
0.093750 -0.250000 -0.218750 0.000000 -1.000000 0.000000
0.093750 -0.250000 -0.187500 0.000000 -1.000000 0.000000
0.062500 -0.250000 -0.187500 0.000000 -1.000000 0.000000
0.062500 -0.250000 -0.218750 0.000000 -1.000000 0.000000
0.156250 -0.250000 -0.218750 0.000000 -1.000000 0.000000
0.156250 -0.250000 -0.187500 0.000000 -1.000000 0.000000
0.125000 -0.250000 -0.187500 0.000000 -1.000000 0.000000
0.125000 -0.250000 -0.218750 0.000000 -1.000000 0.000000
-0.250000 -0.156250 -0.156250 -1.000000 -0.000000 0.000000
-0.250000 -0.156250 -0.125000 -1.000000 -0.000000 0.000000
-0.250000 -0.125000 -0.125000 -1.000000 -0.000000 0.000000
-0.250000 -0.125000 -0.156250 -1.000000 -0.000000 0.000000
-0.250000 -0.156250 -0.093750 -1.000000 -0.000000 0.000000
-0.250000 -0.156250 -0.062500 -1.000000 -0.000000 0.000000
-0.250000 -0.125000 -0.062500 -1.000000 -0.000000 0.000000
-0.250000 -0.125000 -0.093750 -1.000000 -0.000000 0.000000
-0.250000 -0.156250 -0.031250 -1.000000 -0.000000 0.000000
-0.250000 -0.156250 0.000000 -1.000000 -0.000000 0.000000
-0.250000 -0.125000 0.000000 -1.000000 -0.000000 0.000000
-0.250000 -0.125000 -0.031250 -1.000000 -0.000000 0.000000
-0.250000 -0.156250 0.031250 -1.000000 -0.000000 0.000000
-0.250000 -0.156250 0.062500 -1.000000 -0.000000 0.000000
-0.250000 -0.125000 0.062500 -1.000000 -0.000000 0.000000
-0.250000 -0.125000 0.031250 -1.000000 -0.000000 0.000000
-0.250000 -0.156250 0.093750 -1.000000 -0.000000 0.000000
-0.250000 -0.156250 0.125000 -1.000000 -0.000000 0.000000
-0.250000 -0.125000 0.125000 -1.000000 -0.000000 0.000000
-0.250000 -0.125000 0.093750 -1.000000 -0.000000 0.000000
-0.250000 -0.156250 0.156250 -1.000000 -0.000000 0.000000
-0.250000 -0.156250 0.187500 -1.000000 -0.000000 0.000000
-0.250000 -0.125000 0.187500 -1.000000 -0.000000 0.000000
-0.250000 -0.125000 0.156250 -1.000000 -0.000000 0.000000
-0.250000 -0.093750 -0.156250 -1.000000 -0.000000 0.000000
-0.250000 -0.093750 -0.125000 -1.000000 -0.000000 0.000000
-0.250000 -0.062500 -0.125000 -1.000000 -0.000000 0.000000
-0.250000 -0.062500 -0.156250 -1.000000 -0.000000 0.000000
-0.250000 -0.093750 -0.093750 -1.000000 -0.000000 0.000000
-0.250000 -0.093750 -0.062500 -1.000000 -0.000000 0.000000
-0.250000 -0.062500 -0.062500 -1.000000 -0.000000 0.000000
-0.250000 -0.062500 -0.093750 -1.000000 -0.000000 0.000000
-0.250000 -0.093750 -0.031250 -1.000000 -0.000000 0.000000
-0.250000 -0.093750 0.000000 -1.000000 -0.000000 0.000000
-0.250000 -0.062500 0.000000 -1.000000 -0.000000 0.000000
-0.250000 -0.062500 -0.031250 -1.000000 -0.000000 0.000000
-0.250000 -0.093750 0.031250 -1.000000 -0.000000 0.000000
-0.250000 -0.093750 0.062500 -1.000000 -0.000000 0.000000
-0.250000 -0.062500 0.062500 -1.000000 -0.000000 0.000000
-0.250000 -0.062500 0.031250 -1.000000 -0.000000 0.000000
-0.250000 -0.093750 0.093750 -1.000000 -0.000000 0.000000
-0.250000 -0.093750 0.125000 -1.000000 -0.000000 0.000000
-0.250000 -0.062500 0.125000 -1.000000 -0.000000 0.000000
-0.250000 -0.062500 0.093750 -1.000000 -0.000000 0.000000
-0.250000 -0.093750 0.156250 -1.000000 -0.000000 0.000000
-0.250000 -0.093750 0.187500 -1.000000 -0.000000 0.000000
-0.250000 -0.062500 0.187500 -1.000000 -0.000000 0.000000
-0.250000 -0.062500 0.156250 -1.000000 -0.000000 0.000000
-0.250000 -0.031250 -0.156250 -1.000000 -0.000000 0.000000
-0.250000 -0.031250 -0.125000 -1.000000 -0.000000 0.000000
-0.250000 -0.000000 -0.125000 -1.000000 -0.000000 0.000000
-0.250000 -0.000000 -0.156250 -1.000000 -0.000000 0.000000
-0.250000 -0.031250 -0.093750 -1.000000 -0.000000 0.000000
-0.250000 -0.031250 -0.062500 -1.000000 -0.000000 0.000000
-0.250000 0.000000 -0.062500 -1.000000 -0.000000 0.000000
-0.250000 -0.000000 -0.093750 -1.000000 -0.000000 0.000000
-0.250000 -0.031250 -0.031250 -1.000000 -0.000000 0.000000
-0.250000 -0.031250 0.000000 -1.000000 -0.000000 0.000000
-0.250000 -0.000000 0.000000 -1.000000 -0.000000 0.000000
-0.250000 -0.000000 -0.031250 -1.000000 -0.000000 0.000000
-0.250000 -0.031250 0.031250 -1.000000 -0.000000 0.000000
-0.250000 -0.031250 0.062500 -1.000000 -0.000000 0.000000
-0.250000 -0.000000 0.062500 -1.000000 -0.000000 0.000000
-0.250000 -0.000000 0.031250 -1.000000 -0.000000 0.000000
-0.250000 -0.031250 0.093750 -1.000000 -0.000000 0.000000
-0.250000 -0.031250 0.125000 -1.000000 -0.000000 0.000000
-0.250000 -0.000000 0.125000 -1.000000 -0.000000 0.000000
-0.250000 -0.000000 0.093750 -1.000000 -0.000000 0.000000
-0.250000 -0.031250 0.156250 -1.000000 -0.000000 0.000000
-0.250000 -0.031250 0.187500 -1.000000 -0.000000 0.000000
-0.250000 -0.000000 0.187500 -1.000000 -0.000000 0.000000
-0.250000 -0.000000 0.156250 -1.000000 -0.000000 0.000000
-0.250000 0.031250 -0.156250 -1.000000 -0.000000 0.000000
-0.250000 0.031250 -0.125000 -1.000000 -0.000000 0.000000
-0.250000 0.062500 -0.125000 -1.000000 -0.000000 0.000000
-0.250000 0.062500 -0.156250 -1.000000 -0.000000 0.000000
-0.250000 0.031250 -0.093750 -1.000000 -0.000000 0.000000
-0.250000 0.031250 -0.062500 -1.000000 -0.000000 0.000000
-0.250000 0.062500 -0.062500 -1.000000 -0.000000 0.000000
-0.250000 0.062500 -0.093750 -1.000000 -0.000000 0.000000
-0.250000 0.031250 -0.031250 -1.000000 -0.000000 0.000000
-0.250000 0.031250 0.000000 -1.000000 -0.000000 0.000000
-0.250000 0.062500 0.000000 -1.000000 -0.000000 0.000000
-0.250000 0.062500 -0.031250 -1.000000 -0.000000 0.000000
-0.250000 0.031250 0.031250 -1.000000 -0.000000 0.000000
-0.250000 0.031250 0.062500 -1.000000 -0.000000 0.000000
-0.250000 0.062500 0.062500 -1.000000 -0.000000 0.000000
-0.250000 0.062500 0.031250 -1.000000 -0.000000 0.000000
-0.250000 0.031250 0.093750 -1.000000 -0.000000 0.000000
-0.250000 0.031250 0.125000 -1.000000 -0.000000 0.000000
-0.250000 0.062500 0.125000 -1.000000 -0.000000 0.000000
-0.250000 0.062500 0.093750 -1.000000 -0.000000 0.000000
-0.250000 0.031250 0.156250 -1.000000 -0.000000 0.000000
-0.250000 0.031250 0.187500 -1.000000 -0.000000 0.000000
-0.250000 0.062500 0.187500 -1.000000 -0.000000 0.000000
-0.250000 0.062500 0.156250 -1.000000 -0.000000 0.000000
-0.250000 0.093750 -0.156250 -1.000000 -0.000000 0.000000
-0.250000 0.093750 -0.125000 -1.000000 -0.000000 0.000000
-0.250000 0.125000 -0.125000 -1.000000 -0.000000 0.000000
-0.250000 0.125000 -0.156250 -1.000000 -0.000000 0.000000
-0.250000 0.093750 -0.093750 -1.000000 -0.000000 0.000000
-0.250000 0.093750 -0.062500 -1.000000 -0.000000 0.000000
-0.250000 0.125000 -0.062500 -1.000000 -0.000000 0.000000
-0.250000 0.125000 -0.093750 -1.000000 -0.000000 0.000000
-0.250000 0.093750 -0.031250 -1.000000 -0.000000 0.000000
-0.250000 0.093750 0.000000 -1.000000 -0.000000 0.000000
-0.250000 0.125000 0.000000 -1.000000 -0.000000 0.000000
-0.250000 0.125000 -0.031250 -1.000000 -0.000000 0.000000
-0.250000 0.093750 0.031250 -1.000000 -0.000000 0.000000
-0.250000 0.093750 0.062500 -1.000000 -0.000000 0.000000
-0.250000 0.125000 0.062500 -1.000000 -0.000000 0.000000
-0.250000 0.125000 0.031250 -1.000000 -0.000000 0.000000
-0.250000 0.093750 0.093750 -1.000000 -0.000000 0.000000
-0.250000 0.093750 0.125000 -1.000000 -0.000000 0.000000
-0.250000 0.125000 0.125000 -1.000000 -0.000000 0.000000
-0.250000 0.125000 0.093750 -1.000000 -0.000000 0.000000
-0.250000 0.093750 0.156250 -1.000000 -0.000000 0.000000
-0.250000 0.093750 0.187500 -1.000000 -0.000000 0.000000
-0.250000 0.125000 0.187500 -1.000000 -0.000000 0.000000
-0.250000 0.125000 0.156250 -1.000000 -0.000000 0.000000
-0.250000 0.156250 -0.156250 -1.000000 -0.000000 0.000000
-0.250000 0.156250 -0.125000 -1.000000 -0.000000 0.000000
-0.250000 0.187500 -0.125000 -1.000000 -0.000000 0.000000
-0.250000 0.187500 -0.156250 -1.000000 -0.000000 0.000000
-0.250000 0.156250 -0.093750 -1.000000 -0.000000 0.000000
-0.250000 0.156250 -0.062500 -1.000000 -0.000000 0.000000
-0.250000 0.187500 -0.062500 -1.000000 -0.000000 0.000000
-0.250000 0.187500 -0.093750 -1.000000 -0.000000 0.000000
-0.250000 0.156250 -0.031250 -1.000000 -0.000000 0.000000
-0.250000 0.156250 0.000000 -1.000000 -0.000000 0.000000
-0.250000 0.187500 0.000000 -1.000000 -0.000000 0.000000
-0.250000 0.187500 -0.031250 -1.000000 -0.000000 0.000000
-0.250000 0.156250 0.031250 -1.000000 -0.000000 0.000000
-0.250000 0.156250 0.062500 -1.000000 -0.000000 0.000000
-0.250000 0.187500 0.062500 -1.000000 -0.000000 0.000000
-0.250000 0.187500 0.031250 -1.000000 -0.000000 0.000000
-0.250000 0.156250 0.093750 -1.000000 -0.000000 0.000000
-0.250000 0.156250 0.125000 -1.000000 -0.000000 0.000000
-0.250000 0.187500 0.125000 -1.000000 -0.000000 0.000000
-0.250000 0.187500 0.093750 -1.000000 -0.000000 0.000000
-0.250000 0.156250 0.156250 -1.000000 -0.000000 0.000000
-0.250000 0.156250 0.187500 -1.000000 -0.000000 0.000000
-0.250000 0.187500 0.187500 -1.000000 -0.000000 0.000000
-0.250000 0.187500 0.156250 -1.000000 -0.000000 0.000000
-0.250000 -0.218750 -0.218750 -1.000000 -0.000000 0.000000
-0.250000 -0.218750 -0.187500 -1.000000 -0.000000 0.000000
-0.250000 -0.187500 -0.187500 -1.000000 -0.000000 0.000000
-0.250000 -0.187500 -0.218750 -1.000000 -0.000000 0.000000
-0.250000 -0.218750 -0.156250 -1.000000 -0.000000 0.000000
-0.250000 -0.218750 -0.125000 -1.000000 -0.000000 0.000000
-0.250000 -0.187500 -0.125000 -1.000000 -0.000000 0.000000
-0.250000 -0.187500 -0.156250 -1.000000 -0.000000 0.000000
-0.250000 -0.218750 -0.093750 -1.000000 -0.000000 0.000000
-0.250000 -0.218750 -0.062500 -1.000000 -0.000000 0.000000
-0.250000 -0.187500 -0.062500 -1.000000 -0.000000 0.000000
-0.250000 -0.187500 -0.093750 -1.000000 -0.000000 0.000000
-0.250000 -0.218750 -0.031250 -1.000000 -0.000000 0.000000
-0.250000 -0.218750 0.000000 -1.000000 -0.000000 0.000000
-0.250000 -0.187500 0.000000 -1.000000 -0.000000 0.000000
-0.250000 -0.187500 -0.031250 -1.000000 -0.000000 0.000000
-0.250000 -0.218750 0.031250 -1.000000 -0.000000 0.000000
-0.250000 -0.218750 0.062500 -1.000000 -0.000000 0.000000
-0.250000 -0.187500 0.062500 -1.000000 -0.000000 0.000000
-0.250000 -0.187500 0.031250 -1.000000 -0.000000 0.000000
-0.250000 -0.218750 0.093750 -1.000000 -0.000000 0.000000
-0.250000 -0.218750 0.125000 -1.000000 -0.000000 0.000000
-0.250000 -0.187500 0.125000 -1.000000 -0.000000 0.000000
-0.250000 -0.187500 0.093750 -1.000000 -0.000000 0.000000
-0.250000 -0.218750 0.156250 -1.000000 -0.000000 0.000000
-0.250000 -0.218750 0.187500 -1.000000 -0.000000 0.000000
-0.250000 -0.187500 0.187500 -1.000000 -0.000000 0.000000
-0.250000 -0.187500 0.156250 -1.000000 -0.000000 0.000000
-0.250000 -0.218750 0.218750 -1.000000 -0.000000 0.000000
-0.250000 -0.218750 0.250000 -1.000000 -0.000000 0.000000
-0.250000 -0.187500 0.250000 -1.000000 -0.000000 0.000000
-0.250000 -0.187500 0.218750 -1.000000 -0.000000 0.000000
-0.250000 -0.156250 0.218750 -1.000000 -0.000000 0.000000
-0.250000 -0.156250 0.250000 -1.000000 -0.000000 0.000000
-0.250000 -0.125000 0.250000 -1.000000 -0.000000 0.000000
-0.250000 -0.125000 0.218750 -1.000000 -0.000000 0.000000
-0.250000 -0.093750 0.218750 -1.000000 -0.000000 0.000000
-0.250000 -0.093750 0.250000 -1.000000 -0.000000 0.000000
-0.250000 -0.062500 0.250000 -1.000000 -0.000000 0.000000
-0.250000 -0.062500 0.218750 -1.000000 -0.000000 0.000000
-0.250000 -0.031250 0.218750 -1.000000 -0.000000 0.000000
-0.250000 -0.031250 0.250000 -1.000000 -0.000000 0.000000
-0.250000 0.000000 0.250000 -1.000000 -0.000000 0.000000
-0.250000 -0.000000 0.218750 -1.000000 -0.000000 0.000000
-0.250000 0.031250 0.218750 -1.000000 -0.000000 0.000000
-0.250000 0.031250 0.250000 -1.000000 -0.000000 0.000000
-0.250000 0.062500 0.250000 -1.000000 -0.000000 0.000000
-0.250000 0.062500 0.218750 -1.000000 -0.000000 0.000000
-0.250000 0.093750 0.218750 -1.000000 -0.000000 0.000000
-0.250000 0.093750 0.250000 -1.000000 -0.000000 0.000000
-0.250000 0.125000 0.250000 -1.000000 -0.000000 0.000000
-0.250000 0.125000 0.218750 -1.000000 -0.000000 0.000000
-0.250000 0.156250 0.218750 -1.000000 -0.000000 0.000000
-0.250000 0.156250 0.250000 -1.000000 -0.000000 0.000000
-0.250000 0.187500 0.250000 -1.000000 -0.000000 0.000000
-0.250000 0.187500 0.218750 -1.000000 -0.000000 0.000000
-0.250000 0.218750 0.218750 -1.000000 -0.000000 0.000000
-0.250000 0.218750 0.250000 -1.000000 -0.000000 0.000000
-0.250000 0.250000 0.250000 -1.000000 -0.000000 0.000000
-0.250000 0.250000 0.218750 -1.000000 -0.000000 0.000000
-0.250000 0.218750 0.156250 -1.000000 -0.000000 0.000000
-0.250000 0.218750 0.187500 -1.000000 -0.000000 0.000000
-0.250000 0.250000 0.187500 -1.000000 -0.000000 0.000000
-0.250000 0.250000 0.156250 -1.000000 -0.000000 0.000000
-0.250000 0.218750 0.093750 -1.000000 -0.000000 0.000000
-0.250000 0.218750 0.125000 -1.000000 -0.000000 0.000000
-0.250000 0.250000 0.125000 -1.000000 -0.000000 0.000000
-0.250000 0.250000 0.093750 -1.000000 -0.000000 0.000000
-0.250000 0.218750 0.031250 -1.000000 -0.000000 0.000000
-0.250000 0.218750 0.062500 -1.000000 -0.000000 0.000000
-0.250000 0.250000 0.062500 -1.000000 -0.000000 0.000000
-0.250000 0.250000 0.031250 -1.000000 -0.000000 0.000000
-0.250000 0.218750 -0.031250 -1.000000 -0.000000 0.000000
-0.250000 0.218750 0.000000 -1.000000 -0.000000 0.000000
-0.250000 0.250000 0.000000 -1.000000 -0.000000 0.000000
-0.250000 0.250000 -0.031250 -1.000000 -0.000000 0.000000
-0.250000 0.218750 -0.093750 -1.000000 -0.000000 0.000000
-0.250000 0.218750 -0.062500 -1.000000 -0.000000 0.000000
-0.250000 0.250000 -0.062500 -1.000000 -0.000000 0.000000
-0.250000 0.250000 -0.093750 -1.000000 -0.000000 0.000000
-0.250000 0.218750 -0.156250 -1.000000 -0.000000 0.000000
-0.250000 0.218750 -0.125000 -1.000000 -0.000000 0.000000
-0.250000 0.250000 -0.125000 -1.000000 -0.000000 0.000000
-0.250000 0.250000 -0.156250 -1.000000 -0.000000 0.000000
-0.250000 0.218750 -0.218750 -1.000000 -0.000000 0.000000
-0.250000 0.218750 -0.187500 -1.000000 -0.000000 0.000000
-0.250000 0.250000 -0.187500 -1.000000 -0.000000 0.000000
-0.250000 0.250000 -0.218750 -1.000000 -0.000000 0.000000
-0.250000 0.156250 -0.218750 -1.000000 -0.000000 0.000000
-0.250000 0.156250 -0.187500 -1.000000 -0.000000 0.000000
-0.250000 0.187500 -0.187500 -1.000000 -0.000000 0.000000
-0.250000 0.187500 -0.218750 -1.000000 -0.000000 0.000000
-0.250000 0.093750 -0.218750 -1.000000 -0.000000 0.000000
-0.250000 0.093750 -0.187500 -1.000000 -0.000000 0.000000
-0.250000 0.125000 -0.187500 -1.000000 -0.000000 0.000000
-0.250000 0.125000 -0.218750 -1.000000 -0.000000 0.000000
-0.250000 0.031250 -0.218750 -1.000000 -0.000000 0.000000
-0.250000 0.031250 -0.187500 -1.000000 -0.000000 0.000000
-0.250000 0.062500 -0.187500 -1.000000 -0.000000 0.000000
-0.250000 0.062500 -0.218750 -1.000000 -0.000000 0.000000
-0.250000 -0.031250 -0.218750 -1.000000 -0.000000 0.000000
-0.250000 -0.031250 -0.187500 -1.000000 -0.000000 0.000000
-0.250000 -0.000000 -0.187500 -1.000000 -0.000000 0.000000
-0.250000 -0.000000 -0.218750 -1.000000 -0.000000 0.000000
-0.250000 -0.093750 -0.218750 -1.000000 -0.000000 0.000000
-0.250000 -0.093750 -0.187500 -1.000000 -0.000000 0.000000
-0.250000 -0.062500 -0.187500 -1.000000 -0.000000 0.000000
-0.250000 -0.062500 -0.218750 -1.000000 -0.000000 0.000000
-0.250000 -0.156250 -0.218750 -1.000000 -0.000000 0.000000
-0.250000 -0.156250 -0.187500 -1.000000 -0.000000 0.000000
-0.250000 -0.125000 -0.187500 -1.000000 -0.000000 0.000000
-0.250000 -0.125000 -0.218750 -1.000000 -0.000000 0.000000
-0.156250 0.156250 -0.250000 0.000000 0.000000 -1.000000
-0.125000 0.156250 -0.250000 0.000000 0.000000 -1.000000
-0.125000 0.125000 -0.250000 0.000000 0.000000 -1.000000
-0.156250 0.125000 -0.250000 0.000000 0.000000 -1.000000
-0.093750 0.156250 -0.250000 0.000000 0.000000 -1.000000
-0.062500 0.156250 -0.250000 0.000000 0.000000 -1.000000
-0.062500 0.125000 -0.250000 0.000000 0.000000 -1.000000
-0.093750 0.125000 -0.250000 0.000000 0.000000 -1.000000
-0.031250 0.156250 -0.250000 -0.000001 0.000000 -1.000000
0.000000 0.156250 -0.250000 -0.000001 0.000000 -1.000000
0.000000 0.125000 -0.250000 -0.000001 0.000000 -1.000000
-0.031250 0.125000 -0.250000 -0.000001 0.000000 -1.000000
0.031250 0.156250 -0.250000 0.000000 0.000000 -1.000000
0.062500 0.156250 -0.250000 0.000000 0.000000 -1.000000
0.062500 0.125000 -0.250000 0.000000 0.000000 -1.000000
0.031250 0.125000 -0.250000 0.000000 0.000000 -1.000000
0.093750 0.156250 -0.250000 0.000000 0.000001 -1.000000
0.125000 0.156250 -0.250000 0.000000 0.000001 -1.000000
0.125000 0.125000 -0.250000 0.000000 0.000001 -1.000000
0.093750 0.125000 -0.250000 0.000000 0.000001 -1.000000
0.156250 0.156250 -0.250000 0.000000 0.000001 -1.000000
0.187500 0.156250 -0.250000 0.000000 0.000001 -1.000000
0.187500 0.125000 -0.250000 0.000000 0.000001 -1.000000
0.156250 0.125000 -0.250000 0.000000 0.000001 -1.000000
-0.156250 0.093750 -0.250000 -0.000000 0.000000 -1.000000
-0.125000 0.093750 -0.250000 -0.000000 0.000000 -1.000000
-0.125000 0.062500 -0.250000 -0.000000 0.000000 -1.000000
-0.156250 0.062500 -0.250000 -0.000000 0.000000 -1.000000
-0.093750 0.093750 -0.250000 0.000000 0.000000 -1.000000
-0.062500 0.093750 -0.250000 0.000000 0.000000 -1.000000
-0.062500 0.062500 -0.250000 0.000000 0.000000 -1.000000
-0.093750 0.062500 -0.250000 0.000000 0.000000 -1.000000
-0.031250 0.093750 -0.250000 -0.000001 0.000000 -1.000000
0.000000 0.093750 -0.250000 -0.000001 0.000000 -1.000000
0.000000 0.062500 -0.250000 -0.000001 0.000000 -1.000000
-0.031250 0.062500 -0.250000 -0.000001 0.000000 -1.000000
0.031250 0.093750 -0.250000 0.000000 0.000000 -1.000000
0.062500 0.093750 -0.250000 0.000000 0.000000 -1.000000
0.062500 0.062500 -0.250000 0.000000 0.000000 -1.000000
0.031250 0.062500 -0.250000 0.000000 0.000000 -1.000000
0.093750 0.093750 -0.250000 -0.000001 0.000000 -1.000000
0.125000 0.093750 -0.250000 -0.000001 0.000000 -1.000000
0.125000 0.062500 -0.250000 -0.000001 0.000000 -1.000000
0.093750 0.062500 -0.250000 -0.000001 0.000000 -1.000000
0.156250 0.093750 -0.250000 0.000000 0.000000 -1.000000
0.187500 0.093750 -0.250000 0.000000 0.000000 -1.000000
0.187500 0.062500 -0.250000 0.000000 0.000000 -1.000000
0.156250 0.062500 -0.250000 0.000000 0.000000 -1.000000
-0.156250 0.031250 -0.250000 -0.000000 0.000000 -1.000000
-0.125000 0.031250 -0.250000 -0.000000 0.000000 -1.000000
-0.125000 0.000000 -0.250000 -0.000000 0.000000 -1.000000
-0.156250 0.000000 -0.250000 -0.000000 0.000000 -1.000000
-0.093750 0.031250 -0.250000 0.000000 0.000000 -1.000000
-0.062500 0.031250 -0.250000 0.000000 0.000000 -1.000000
-0.062500 0.000000 -0.250000 0.000000 0.000000 -1.000000
-0.093750 0.000000 -0.250000 0.000000 0.000000 -1.000000
-0.031250 0.031250 -0.250000 0.000000 0.000000 -1.000000
0.000000 0.031250 -0.250000 0.000000 0.000000 -1.000000
0.000000 -0.000000 -0.250000 0.000000 0.000000 -1.000000
-0.031250 0.000000 -0.250000 0.000000 0.000000 -1.000000
0.031250 0.031250 -0.250000 -0.000000 0.000000 -1.000000
0.062500 0.031250 -0.250000 -0.000000 0.000000 -1.000000
0.062500 0.000000 -0.250000 -0.000000 0.000000 -1.000000
0.031250 0.000000 -0.250000 -0.000000 0.000000 -1.000000
0.093750 0.031250 -0.250000 -0.000000 0.000000 -1.000000
0.125000 0.031250 -0.250000 -0.000000 0.000000 -1.000000
0.125000 0.000000 -0.250000 -0.000000 0.000000 -1.000000
0.093750 0.000000 -0.250000 -0.000000 0.000000 -1.000000
0.156250 0.031250 -0.250000 0.000000 0.000001 -1.000000
0.187500 0.031250 -0.250000 0.000000 0.000001 -1.000000
0.187500 0.000000 -0.250000 0.000000 0.000001 -1.000000
0.156250 0.000000 -0.250000 0.000000 0.000001 -1.000000
-0.156250 -0.031250 -0.250000 -0.000001 0.000000 -1.000000
-0.125000 -0.031250 -0.250000 -0.000001 0.000000 -1.000000
-0.125000 -0.062500 -0.250000 -0.000001 0.000000 -1.000000
-0.156250 -0.062500 -0.250000 -0.000001 0.000000 -1.000000
-0.093750 -0.031250 -0.250000 0.000000 0.000000 -1.000000
-0.062500 -0.031250 -0.250000 0.000000 0.000000 -1.000000
-0.062500 -0.062500 -0.250000 0.000000 0.000000 -1.000000
-0.093750 -0.062500 -0.250000 0.000000 0.000000 -1.000000
-0.031250 -0.031250 -0.250000 0.000000 0.000000 -1.000000
0.000000 -0.031250 -0.250000 0.000000 0.000000 -1.000000
0.000000 -0.062500 -0.250000 0.000000 0.000000 -1.000000
-0.031250 -0.062500 -0.250000 0.000000 0.000000 -1.000000
0.031250 -0.031250 -0.250000 0.000000 0.000000 -1.000000
0.062500 -0.031250 -0.250000 0.000000 0.000000 -1.000000
0.062500 -0.062500 -0.250000 0.000000 0.000000 -1.000000
0.031250 -0.062500 -0.250000 0.000000 0.000000 -1.000000
0.093750 -0.031250 -0.250000 -0.000001 0.000000 -1.000000
0.125000 -0.031250 -0.250000 -0.000001 0.000000 -1.000000
0.125000 -0.062500 -0.250000 -0.000001 0.000000 -1.000000
0.093750 -0.062500 -0.250000 -0.000001 0.000000 -1.000000
0.156250 -0.031250 -0.250000 0.000000 0.000000 -1.000000
0.187500 -0.031250 -0.250000 0.000000 0.000000 -1.000000
0.187500 -0.062500 -0.250000 0.000000 0.000000 -1.000000
0.156250 -0.062500 -0.250000 0.000000 0.000000 -1.000000
-0.156250 -0.093750 -0.250000 0.000000 0.000000 -1.000000
-0.125000 -0.093750 -0.250000 0.000000 0.000000 -1.000000
-0.125000 -0.125000 -0.250000 0.000000 0.000000 -1.000000
-0.156250 -0.125000 -0.250000 0.000000 0.000000 -1.000000
-0.093750 -0.093750 -0.250000 -0.000000 0.000000 -1.000000
-0.062500 -0.093750 -0.250000 -0.000000 0.000000 -1.000000
-0.062500 -0.125000 -0.250000 -0.000000 0.000000 -1.000000
-0.093750 -0.125000 -0.250000 -0.000000 0.000000 -1.000000
-0.031250 -0.093750 -0.250000 0.000000 0.000001 -1.000000
0.000000 -0.093750 -0.250000 0.000000 0.000001 -1.000000
0.000000 -0.125000 -0.250000 0.000000 0.000001 -1.000000
-0.031250 -0.125000 -0.250000 0.000000 0.000001 -1.000000
0.031250 -0.093750 -0.250000 0.000000 0.000001 -1.000000
0.062500 -0.093750 -0.250000 0.000000 0.000001 -1.000000
0.062500 -0.125000 -0.250000 0.000000 0.000001 -1.000000
0.031250 -0.125000 -0.250000 0.000000 0.000001 -1.000000
0.093750 -0.093750 -0.250000 -0.000000 0.000000 -1.000000
0.125000 -0.093750 -0.250000 -0.000000 0.000000 -1.000000
0.125000 -0.125000 -0.250000 -0.000000 0.000000 -1.000000
0.093750 -0.125000 -0.250000 -0.000000 0.000000 -1.000000
0.156250 -0.093750 -0.250000 0.000000 0.000000 -1.000000
0.187500 -0.093750 -0.250000 0.000000 0.000000 -1.000000
0.187500 -0.125000 -0.250000 0.000000 0.000000 -1.000000
0.156250 -0.125000 -0.250000 0.000000 0.000000 -1.000000
-0.156250 -0.156250 -0.250000 0.000000 0.000001 -1.000000
-0.125000 -0.156250 -0.250000 0.000000 0.000001 -1.000000
-0.125000 -0.187500 -0.250000 0.000000 0.000001 -1.000000
-0.156250 -0.187500 -0.250000 0.000000 0.000001 -1.000000
-0.093750 -0.156250 -0.250000 0.000000 0.000000 -1.000000
-0.062500 -0.156250 -0.250000 0.000000 0.000000 -1.000000
-0.062500 -0.187500 -0.250000 0.000000 0.000000 -1.000000
-0.093750 -0.187500 -0.250000 0.000000 0.000000 -1.000000
-0.031250 -0.156250 -0.250000 -0.000001 0.000000 -1.000000
0.000000 -0.156250 -0.250000 -0.000001 0.000000 -1.000000
0.000000 -0.187500 -0.250000 -0.000001 0.000000 -1.000000
-0.031250 -0.187500 -0.250000 -0.000001 0.000000 -1.000000
0.031250 -0.156250 -0.250000 0.000000 0.000000 -1.000000
0.062500 -0.156250 -0.250000 0.000000 0.000000 -1.000000
0.062500 -0.187500 -0.250000 0.000000 0.000000 -1.000000
0.031250 -0.187500 -0.250000 0.000000 0.000000 -1.000000
0.093750 -0.156250 -0.250000 -0.000001 0.000000 -1.000000
0.125000 -0.156250 -0.250000 -0.000001 0.000000 -1.000000
0.125000 -0.187500 -0.250000 -0.000001 0.000000 -1.000000
0.093750 -0.187500 -0.250000 -0.000001 0.000000 -1.000000
0.156250 -0.156250 -0.250000 0.000000 0.000000 -1.000000
0.187500 -0.156250 -0.250000 0.000000 0.000000 -1.000000
0.187500 -0.187500 -0.250000 0.000000 0.000000 -1.000000
0.156250 -0.187500 -0.250000 0.000000 0.000000 -1.000000
-0.218750 0.218750 -0.250000 -0.000000 0.000000 -1.000000
-0.187500 0.218750 -0.250000 -0.000000 0.000000 -1.000000
-0.187500 0.187500 -0.250000 -0.000000 0.000000 -1.000000
-0.218750 0.187500 -0.250000 -0.000000 0.000000 -1.000000
-0.156250 0.218750 -0.250000 -0.000000 0.000000 -1.000000
-0.125000 0.218750 -0.250000 -0.000000 0.000000 -1.000000
-0.125000 0.187500 -0.250000 -0.000000 0.000000 -1.000000
-0.156250 0.187500 -0.250000 -0.000000 0.000000 -1.000000
-0.093750 0.218750 -0.250000 0.000000 0.000000 -1.000000
-0.062500 0.218750 -0.250000 0.000000 0.000000 -1.000000
-0.062500 0.187500 -0.250000 0.000000 0.000000 -1.000000
-0.093750 0.187500 -0.250000 0.000000 0.000000 -1.000000
-0.031250 0.218750 -0.250000 -0.000001 0.000000 -1.000000
0.000000 0.218750 -0.250000 -0.000001 0.000000 -1.000000
0.000000 0.187500 -0.250000 -0.000001 0.000000 -1.000000
-0.031250 0.187500 -0.250000 -0.000001 0.000000 -1.000000
0.031250 0.218750 -0.250000 0.000000 0.000001 -1.000000
0.062500 0.218750 -0.250000 0.000000 0.000001 -1.000000
0.062500 0.187500 -0.250000 0.000000 0.000001 -1.000000
0.031250 0.187500 -0.250000 0.000000 0.000001 -1.000000
0.093750 0.218750 -0.250000 0.000000 0.000000 -1.000000
0.125000 0.218750 -0.250000 0.000000 0.000000 -1.000000
0.125000 0.187500 -0.250000 0.000000 0.000000 -1.000000
0.093750 0.187500 -0.250000 0.000000 0.000000 -1.000000
0.156250 0.218750 -0.250000 0.000000 0.000000 -1.000000
0.187500 0.218750 -0.250000 0.000000 0.000000 -1.000000
0.187500 0.187500 -0.250000 0.000000 0.000000 -1.000000
0.156250 0.187500 -0.250000 0.000000 0.000000 -1.000000
0.218750 0.218750 -0.250000 -0.000001 0.000000 -1.000000
0.250000 0.218750 -0.250000 -0.000001 0.000000 -1.000000
0.250000 0.187500 -0.250000 -0.000001 0.000000 -1.000000
0.218750 0.187500 -0.250000 -0.000001 0.000000 -1.000000
0.218750 0.156250 -0.250000 -0.000000 0.000000 -1.000000
0.250000 0.156250 -0.250000 -0.000000 0.000000 -1.000000
0.250000 0.125000 -0.250000 -0.000000 0.000000 -1.000000
0.218750 0.125000 -0.250000 -0.000000 0.000000 -1.000000
0.218750 0.093750 -0.250000 -0.000001 0.000000 -1.000000
0.250000 0.093750 -0.250000 -0.000001 0.000000 -1.000000
0.250000 0.062500 -0.250000 -0.000001 0.000000 -1.000000
0.218750 0.062500 -0.250000 -0.000001 0.000000 -1.000000
0.218750 0.031250 -0.250000 -0.000000 0.000000 -1.000000
0.250000 0.031250 -0.250000 -0.000000 0.000000 -1.000000
0.250000 0.000000 -0.250000 -0.000000 0.000000 -1.000000
0.218750 0.000000 -0.250000 -0.000000 0.000000 -1.000000
0.218750 -0.031250 -0.250000 0.000000 0.000000 -1.000000
0.250000 -0.031250 -0.250000 0.000000 0.000000 -1.000000
0.250000 -0.062500 -0.250000 0.000000 0.000000 -1.000000
0.218750 -0.062500 -0.250000 0.000000 0.000000 -1.000000
0.218750 -0.093750 -0.250000 -0.000000 0.000000 -1.000000
0.250000 -0.093750 -0.250000 -0.000000 0.000000 -1.000000
0.250000 -0.125000 -0.250000 -0.000000 0.000000 -1.000000
0.218750 -0.125000 -0.250000 -0.000000 0.000000 -1.000000
0.218750 -0.156250 -0.250000 0.000000 0.000000 -1.000000
0.250000 -0.156250 -0.250000 0.000000 0.000000 -1.000000
0.250000 -0.187500 -0.250000 0.000000 0.000000 -1.000000
0.218750 -0.187500 -0.250000 0.000000 0.000000 -1.000000
0.218750 -0.218750 -0.250000 0.000000 0.000001 -1.000000
0.250000 -0.218750 -0.250000 0.000000 0.000001 -1.000000
0.250000 -0.250000 -0.250000 0.000000 0.000001 -1.000000
0.218750 -0.250000 -0.250000 0.000000 0.000001 -1.000000
0.156250 -0.218750 -0.250000 0.000000 0.000001 -1.000000
0.187500 -0.218750 -0.250000 0.000000 0.000001 -1.000000
0.187500 -0.250000 -0.250000 0.000000 0.000001 -1.000000
0.156250 -0.250000 -0.250000 0.000000 0.000001 -1.000000
0.093750 -0.218750 -0.250000 -0.000000 0.000000 -1.000000
0.125000 -0.218750 -0.250000 -0.000000 0.000000 -1.000000
0.125000 -0.250000 -0.250000 -0.000000 0.000000 -1.000000
0.093750 -0.250000 -0.250000 -0.000000 0.000000 -1.000000
0.031250 -0.218750 -0.250000 0.000000 0.000001 -1.000000
0.062500 -0.218750 -0.250000 0.000000 0.000001 -1.000000
0.062500 -0.250000 -0.250000 0.000000 0.000001 -1.000000
0.031250 -0.250000 -0.250000 0.000000 0.000001 -1.000000
-0.031250 -0.218750 -0.250000 -0.000000 0.000000 -1.000000
0.000000 -0.218750 -0.250000 -0.000000 0.000000 -1.000000
0.000000 -0.250000 -0.250000 -0.000000 0.000000 -1.000000
-0.031250 -0.250000 -0.250000 -0.000000 0.000000 -1.000000
-0.093750 -0.218750 -0.250000 0.000000 0.000001 -1.000000
-0.062500 -0.218750 -0.250000 0.000000 0.000001 -1.000000
-0.062500 -0.250000 -0.250000 0.000000 0.000001 -1.000000
-0.093750 -0.250000 -0.250000 0.000000 0.000001 -1.000000
-0.156250 -0.218750 -0.250000 0.000000 0.000000 -1.000000
-0.125000 -0.218750 -0.250000 0.000000 0.000000 -1.000000
-0.125000 -0.250000 -0.250000 0.000000 0.000000 -1.000000
-0.156250 -0.250000 -0.250000 0.000000 0.000000 -1.000000
-0.218750 -0.218750 -0.250000 -0.000000 0.000000 -1.000000
-0.187500 -0.218750 -0.250000 -0.000000 0.000000 -1.000000
-0.187500 -0.250000 -0.250000 -0.000000 0.000000 -1.000000
-0.218750 -0.250000 -0.250000 -0.000000 0.000000 -1.000000
-0.218750 -0.156250 -0.250000 -0.000001 0.000000 -1.000000
-0.187500 -0.156250 -0.250000 -0.000001 0.000000 -1.000000
-0.187500 -0.187500 -0.250000 -0.000001 0.000000 -1.000000
-0.218750 -0.187500 -0.250000 -0.000001 0.000000 -1.000000
-0.218750 -0.093750 -0.250000 -0.000000 0.000001 -1.000000
-0.187500 -0.093750 -0.250000 -0.000000 0.000001 -1.000000
-0.187500 -0.125000 -0.250000 -0.000000 0.000001 -1.000000
-0.218750 -0.125000 -0.250000 -0.000000 0.000001 -1.000000
-0.218750 -0.031250 -0.250000 0.000000 0.000000 -1.000000
-0.187500 -0.031250 -0.250000 0.000000 0.000000 -1.000000
-0.187500 -0.062500 -0.250000 0.000000 0.000000 -1.000000
-0.218750 -0.062500 -0.250000 0.000000 0.000000 -1.000000
-0.218750 0.031250 -0.250000 -0.000000 0.000001 -1.000000
-0.187500 0.031250 -0.250000 -0.000000 0.000001 -1.000000
-0.187500 0.000000 -0.250000 -0.000000 0.000001 -1.000000
-0.218750 0.000000 -0.250000 -0.000000 0.000001 -1.000000
-0.218750 0.093750 -0.250000 0.000000 0.000000 -1.000000
-0.187500 0.093750 -0.250000 0.000000 0.000000 -1.000000
-0.187500 0.062500 -0.250000 0.000000 0.000000 -1.000000
-0.218750 0.062500 -0.250000 0.000000 0.000000 -1.000000
-0.218750 0.156250 -0.250000 -0.000001 0.000000 -1.000000
-0.187500 0.156250 -0.250000 -0.000001 0.000000 -1.000000
-0.187500 0.125000 -0.250000 -0.000001 0.000000 -1.000000
-0.218750 0.125000 -0.250000 -0.000001 0.000000 -1.000000
0.250000 0.156250 -0.156250 1.000000 -0.000000 0.000000
0.250000 0.156250 -0.125000 1.000000 -0.000000 0.000000
0.250000 0.125000 -0.125000 1.000000 -0.000000 0.000000
0.250000 0.125000 -0.156250 1.000000 -0.000000 0.000000
0.250000 0.156250 -0.093750 1.000000 -0.000000 0.000000
0.250000 0.156250 -0.062500 1.000000 -0.000000 0.000000
0.250000 0.125000 -0.062500 1.000000 -0.000000 0.000000
0.250000 0.125000 -0.093750 1.000000 -0.000000 0.000000
0.250000 0.156250 -0.031250 1.000000 -0.000000 0.000000
0.250000 0.156250 0.000000 1.000000 -0.000000 0.000000
0.250000 0.125000 0.000000 1.000000 -0.000000 0.000000
0.250000 0.125000 -0.031250 1.000000 -0.000000 0.000000
0.250000 0.156250 0.031250 1.000000 -0.000000 0.000000
0.250000 0.156250 0.062500 1.000000 -0.000000 0.000000
0.250000 0.125000 0.062500 1.000000 -0.000000 0.000000
0.250000 0.125000 0.031250 1.000000 -0.000000 0.000000
0.250000 0.156250 0.093750 1.000000 -0.000000 0.000000
0.250000 0.156250 0.125000 1.000000 -0.000000 0.000000
0.250000 0.125000 0.125000 1.000000 -0.000000 0.000000
0.250000 0.125000 0.093750 1.000000 -0.000000 0.000000
0.250000 0.156250 0.156250 1.000000 -0.000000 0.000000
0.250000 0.156250 0.187500 1.000000 -0.000000 0.000000
0.250000 0.125000 0.187500 1.000000 -0.000000 0.000000
0.250000 0.125000 0.156250 1.000000 -0.000000 0.000000
0.250000 0.093750 -0.156250 1.000000 -0.000000 0.000000
0.250000 0.093750 -0.125000 1.000000 -0.000000 0.000000
0.250000 0.062500 -0.125000 1.000000 -0.000000 0.000000
0.250000 0.062500 -0.156250 1.000000 -0.000000 0.000000
0.250000 0.093750 -0.093750 1.000000 -0.000000 0.000000
0.250000 0.093750 -0.062500 1.000000 -0.000000 0.000000
0.250000 0.062500 -0.062500 1.000000 -0.000000 0.000000
0.250000 0.062500 -0.093750 1.000000 -0.000000 0.000000
0.250000 0.093750 -0.031250 1.000000 -0.000000 0.000000
0.250000 0.093750 0.000000 1.000000 -0.000000 0.000000
0.250000 0.062500 0.000000 1.000000 -0.000000 0.000000
0.250000 0.062500 -0.031250 1.000000 -0.000000 0.000000
0.250000 0.093750 0.031250 1.000000 -0.000000 0.000000
0.250000 0.093750 0.062500 1.000000 -0.000000 0.000000
0.250000 0.062500 0.062500 1.000000 -0.000000 0.000000
0.250000 0.062500 0.031250 1.000000 -0.000000 0.000000
0.250000 0.093750 0.093750 1.000000 -0.000000 0.000000
0.250000 0.093750 0.125000 1.000000 -0.000000 0.000000
0.250000 0.062500 0.125000 1.000000 -0.000000 0.000000
0.250000 0.062500 0.093750 1.000000 -0.000000 0.000000
0.250000 0.093750 0.156250 1.000000 -0.000000 0.000000
0.250000 0.093750 0.187500 1.000000 -0.000000 0.000000
0.250000 0.062500 0.187500 1.000000 -0.000000 0.000000
0.250000 0.062500 0.156250 1.000000 -0.000000 0.000000
0.250000 0.031250 -0.156250 1.000000 -0.000000 0.000000
0.250000 0.031250 -0.125000 1.000000 -0.000000 0.000000
0.250000 0.000000 -0.125000 1.000000 -0.000000 0.000000
0.250000 0.000000 -0.156250 1.000000 -0.000000 0.000000
0.250000 0.031250 -0.093750 1.000000 -0.000000 0.000000
0.250000 0.031250 -0.062500 1.000000 -0.000000 0.000000
0.250000 0.000000 -0.062500 1.000000 -0.000000 0.000000
0.250000 0.000000 -0.093750 1.000000 -0.000000 0.000000
0.250000 0.031250 -0.031250 1.000000 -0.000000 0.000000
0.250000 0.031250 0.000000 1.000000 -0.000000 0.000000
0.250000 -0.000000 0.000000 1.000000 -0.000000 0.000000
0.250000 0.000000 -0.031250 1.000000 -0.000000 0.000000
0.250000 0.031250 0.031250 1.000000 -0.000000 0.000000
0.250000 0.031250 0.062500 1.000000 -0.000000 0.000000
0.250000 0.000000 0.062500 1.000000 -0.000000 0.000000
0.250000 0.000000 0.031250 1.000000 -0.000000 0.000000
0.250000 0.031250 0.093750 1.000000 -0.000000 0.000000
0.250000 0.031250 0.125000 1.000000 -0.000000 0.000000
0.250000 0.000000 0.125000 1.000000 -0.000000 0.000000
0.250000 0.000000 0.093750 1.000000 -0.000000 0.000000
0.250000 0.031250 0.156250 1.000000 -0.000000 0.000000
0.250000 0.031250 0.187500 1.000000 -0.000000 0.000000
0.250000 0.000000 0.187500 1.000000 -0.000000 0.000000
0.250000 0.000000 0.156250 1.000000 -0.000000 0.000000
0.250000 -0.031250 -0.156250 1.000000 -0.000000 0.000000
0.250000 -0.031250 -0.125000 1.000000 -0.000000 0.000000
0.250000 -0.062500 -0.125000 1.000000 -0.000000 0.000000
0.250000 -0.062500 -0.156250 1.000000 -0.000000 0.000000
0.250000 -0.031250 -0.093750 1.000000 -0.000000 0.000000
0.250000 -0.031250 -0.062500 1.000000 -0.000000 0.000000
0.250000 -0.062500 -0.062500 1.000000 -0.000000 0.000000
0.250000 -0.062500 -0.093750 1.000000 -0.000000 0.000000
0.250000 -0.031250 -0.031250 1.000000 -0.000000 0.000000
0.250000 -0.031250 0.000000 1.000000 -0.000000 0.000000
0.250000 -0.062500 0.000000 1.000000 -0.000000 0.000000
0.250000 -0.062500 -0.031250 1.000000 -0.000000 0.000000
0.250000 -0.031250 0.031250 1.000000 -0.000000 0.000000
0.250000 -0.031250 0.062500 1.000000 -0.000000 0.000000
0.250000 -0.062500 0.062500 1.000000 -0.000000 0.000000
0.250000 -0.062500 0.031250 1.000000 -0.000000 0.000000
0.250000 -0.031250 0.093750 1.000000 -0.000000 0.000000
0.250000 -0.031250 0.125000 1.000000 -0.000000 0.000000
0.250000 -0.062500 0.125000 1.000000 -0.000000 0.000000
0.250000 -0.062500 0.093750 1.000000 -0.000000 0.000000
0.250000 -0.031250 0.156250 1.000000 -0.000000 0.000000
0.250000 -0.031250 0.187500 1.000000 -0.000000 0.000000
0.250000 -0.062500 0.187500 1.000000 -0.000000 0.000000
0.250000 -0.062500 0.156250 1.000000 -0.000000 0.000000
0.250000 -0.093750 -0.156250 1.000000 -0.000000 0.000000
0.250000 -0.093750 -0.125000 1.000000 -0.000000 0.000000
0.250000 -0.125000 -0.125000 1.000000 -0.000000 0.000000
0.250000 -0.125000 -0.156250 1.000000 -0.000000 0.000000
0.250000 -0.093750 -0.093750 1.000000 -0.000000 0.000000
0.250000 -0.093750 -0.062500 1.000000 -0.000000 0.000000
0.250000 -0.125000 -0.062500 1.000000 -0.000000 0.000000
0.250000 -0.125000 -0.093750 1.000000 -0.000000 0.000000
0.250000 -0.093750 -0.031250 1.000000 -0.000000 0.000000
0.250000 -0.093750 0.000000 1.000000 -0.000000 0.000000
0.250000 -0.125000 0.000000 1.000000 -0.000000 0.000000
0.250000 -0.125000 -0.031250 1.000000 -0.000000 0.000000
0.250000 -0.093750 0.031250 1.000000 -0.000000 0.000000
0.250000 -0.093750 0.062500 1.000000 -0.000000 0.000000
0.250000 -0.125000 0.062500 1.000000 -0.000000 0.000000
0.250000 -0.125000 0.031250 1.000000 -0.000000 0.000000
0.250000 -0.093750 0.093750 1.000000 -0.000000 0.000000
0.250000 -0.093750 0.125000 1.000000 -0.000000 0.000000
0.250000 -0.125000 0.125000 1.000000 -0.000000 0.000000
0.250000 -0.125000 0.093750 1.000000 -0.000000 0.000000
0.250000 -0.093750 0.156250 1.000000 -0.000000 0.000000
0.250000 -0.093750 0.187500 1.000000 -0.000000 0.000000
0.250000 -0.125000 0.187500 1.000000 -0.000000 0.000000
0.250000 -0.125000 0.156250 1.000000 -0.000000 0.000000
0.250000 -0.156250 -0.156250 1.000000 -0.000000 0.000000
0.250000 -0.156250 -0.125000 1.000000 -0.000000 0.000000
0.250000 -0.187500 -0.125000 1.000000 -0.000000 0.000000
0.250000 -0.187500 -0.156250 1.000000 -0.000000 0.000000
0.250000 -0.156250 -0.093750 1.000000 -0.000000 0.000000
0.250000 -0.156250 -0.062500 1.000000 -0.000000 0.000000
0.250000 -0.187500 -0.062500 1.000000 -0.000000 0.000000
0.250000 -0.187500 -0.093750 1.000000 -0.000000 0.000000
0.250000 -0.156250 -0.031250 1.000000 -0.000000 0.000000
0.250000 -0.156250 0.000000 1.000000 -0.000000 0.000000
0.250000 -0.187500 0.000000 1.000000 -0.000000 0.000000
0.250000 -0.187500 -0.031250 1.000000 -0.000000 0.000000
0.250000 -0.156250 0.031250 1.000000 -0.000000 0.000000
0.250000 -0.156250 0.062500 1.000000 -0.000000 0.000000
0.250000 -0.187500 0.062500 1.000000 -0.000000 0.000000
0.250000 -0.187500 0.031250 1.000000 -0.000000 0.000000
0.250000 -0.156250 0.093750 1.000000 -0.000000 0.000000
0.250000 -0.156250 0.125000 1.000000 -0.000000 0.000000
0.250000 -0.187500 0.125000 1.000000 -0.000000 0.000000
0.250000 -0.187500 0.093750 1.000000 -0.000000 0.000000
0.250000 -0.156250 0.156250 1.000000 -0.000000 0.000000
0.250000 -0.156250 0.187500 1.000000 -0.000000 0.000000
0.250000 -0.187500 0.187500 1.000000 -0.000000 0.000000
0.250000 -0.187500 0.156250 1.000000 -0.000000 0.000000
0.250000 0.218750 -0.218750 1.000000 -0.000000 0.000000
0.250000 0.218750 -0.187500 1.000000 -0.000000 0.000000
0.250000 0.187500 -0.187500 1.000000 -0.000000 0.000000
0.250000 0.187500 -0.218750 1.000000 -0.000000 0.000000
0.250000 0.218750 -0.156250 1.000000 -0.000000 0.000000
0.250000 0.218750 -0.125000 1.000000 -0.000000 0.000000
0.250000 0.187500 -0.125000 1.000000 -0.000000 0.000000
0.250000 0.187500 -0.156250 1.000000 -0.000000 0.000000
0.250000 0.218750 -0.093750 1.000000 -0.000000 0.000000
0.250000 0.218750 -0.062500 1.000000 -0.000000 0.000000
0.250000 0.187500 -0.062500 1.000000 -0.000000 0.000000
0.250000 0.187500 -0.093750 1.000000 -0.000000 0.000000
0.250000 0.218750 -0.031250 1.000000 -0.000000 0.000000
0.250000 0.218750 0.000000 1.000000 -0.000000 0.000000
0.250000 0.187500 0.000000 1.000000 -0.000000 0.000000
0.250000 0.187500 -0.031250 1.000000 -0.000000 0.000000
0.250000 0.218750 0.031250 1.000000 -0.000000 0.000000
0.250000 0.218750 0.062500 1.000000 -0.000000 0.000000
0.250000 0.187500 0.062500 1.000000 -0.000000 0.000000
0.250000 0.187500 0.031250 1.000000 -0.000000 0.000000
0.250000 0.218750 0.093750 1.000000 -0.000000 0.000000
0.250000 0.218750 0.125000 1.000000 -0.000000 0.000000
0.250000 0.187500 0.125000 1.000000 -0.000000 0.000000
0.250000 0.187500 0.093750 1.000000 -0.000000 0.000000
0.250000 0.218750 0.156250 1.000000 -0.000000 0.000000
0.250000 0.218750 0.187500 1.000000 -0.000000 0.000000
0.250000 0.187500 0.187500 1.000000 -0.000000 0.000000
0.250000 0.187500 0.156250 1.000000 -0.000000 0.000000
0.250000 0.218750 0.218750 1.000000 -0.000000 0.000000
0.250000 0.218750 0.250000 1.000000 -0.000000 0.000000
0.250000 0.187500 0.250000 1.000000 -0.000000 0.000000
0.250000 0.187500 0.218750 1.000000 -0.000000 0.000000
0.250000 0.156250 0.218750 1.000000 -0.000000 0.000000
0.250000 0.156250 0.250000 1.000000 -0.000000 0.000000
0.250000 0.125000 0.250000 1.000000 -0.000000 0.000000
0.250000 0.125000 0.218750 1.000000 -0.000000 0.000000
0.250000 0.093750 0.218750 1.000000 -0.000000 0.000000
0.250000 0.093750 0.250000 1.000000 -0.000000 0.000000
0.250000 0.062500 0.250000 1.000000 -0.000000 0.000000
0.250000 0.062500 0.218750 1.000000 -0.000000 0.000000
0.250000 0.031250 0.218750 1.000000 -0.000000 0.000000
0.250000 0.031250 0.250000 1.000000 -0.000000 0.000000
0.250000 0.000000 0.250000 1.000000 -0.000000 0.000000
0.250000 0.000000 0.218750 1.000000 -0.000000 0.000000
0.250000 -0.031250 0.218750 1.000000 -0.000000 0.000000
0.250000 -0.031250 0.250000 1.000000 -0.000000 0.000000
0.250000 -0.062500 0.250000 1.000000 -0.000000 0.000000
0.250000 -0.062500 0.218750 1.000000 -0.000000 0.000000
0.250000 -0.093750 0.218750 1.000000 -0.000000 0.000000
0.250000 -0.093750 0.250000 1.000000 -0.000000 0.000000
0.250000 -0.125000 0.250000 1.000000 -0.000000 0.000000
0.250000 -0.125000 0.218750 1.000000 -0.000000 0.000000
0.250000 -0.156250 0.218750 1.000000 -0.000000 0.000000
0.250000 -0.156250 0.250000 1.000000 -0.000000 0.000000
0.250000 -0.187500 0.250000 1.000000 -0.000000 0.000000
0.250000 -0.187500 0.218750 1.000000 -0.000000 0.000000
0.250000 -0.218750 0.218750 1.000000 -0.000000 0.000000
0.250000 -0.218750 0.250000 1.000000 -0.000000 0.000000
0.250000 -0.250000 0.250000 1.000000 -0.000000 0.000000
0.250000 -0.250000 0.218750 1.000000 -0.000000 0.000000
0.250000 -0.218750 0.156250 1.000000 -0.000000 0.000000
0.250000 -0.218750 0.187500 1.000000 -0.000000 0.000000
0.250000 -0.250000 0.187500 1.000000 -0.000000 0.000000
0.250000 -0.250000 0.156250 1.000000 -0.000000 0.000000
0.250000 -0.218750 0.093750 1.000000 -0.000000 0.000000
0.250000 -0.218750 0.125000 1.000000 -0.000000 0.000000
0.250000 -0.250000 0.125000 1.000000 -0.000000 0.000000
0.250000 -0.250000 0.093750 1.000000 -0.000000 0.000000
0.250000 -0.218750 0.031250 1.000000 -0.000000 0.000000
0.250000 -0.218750 0.062500 1.000000 -0.000000 0.000000
0.250000 -0.250000 0.062500 1.000000 -0.000000 0.000000
0.250000 -0.250000 0.031250 1.000000 -0.000000 0.000000
0.250000 -0.218750 -0.031250 1.000000 -0.000000 0.000000
0.250000 -0.218750 0.000000 1.000000 -0.000000 0.000000
0.250000 -0.250000 0.000000 1.000000 -0.000000 0.000000
0.250000 -0.250000 -0.031250 1.000000 -0.000000 0.000000
0.250000 -0.218750 -0.093750 1.000000 -0.000000 0.000000
0.250000 -0.218750 -0.062500 1.000000 -0.000000 0.000000
0.250000 -0.250000 -0.062500 1.000000 -0.000000 0.000000
0.250000 -0.250000 -0.093750 1.000000 -0.000000 0.000000
0.250000 -0.218750 -0.156250 1.000000 -0.000000 0.000000
0.250000 -0.218750 -0.125000 1.000000 -0.000000 0.000000
0.250000 -0.250000 -0.125000 1.000000 -0.000000 0.000000
0.250000 -0.250000 -0.156250 1.000000 -0.000000 0.000000
0.250000 -0.218750 -0.218750 1.000000 -0.000000 0.000000
0.250000 -0.218750 -0.187500 1.000000 -0.000000 0.000000
0.250000 -0.250000 -0.187500 1.000000 -0.000000 0.000000
0.250000 -0.250000 -0.218750 1.000000 -0.000000 0.000000
0.250000 -0.156250 -0.218750 1.000000 -0.000000 0.000000
0.250000 -0.156250 -0.187500 1.000000 -0.000000 0.000000
0.250000 -0.187500 -0.187500 1.000000 -0.000000 0.000000
0.250000 -0.187500 -0.218750 1.000000 -0.000000 0.000000
0.250000 -0.093750 -0.218750 1.000000 -0.000000 0.000000
0.250000 -0.093750 -0.187500 1.000000 -0.000000 0.000000
0.250000 -0.125000 -0.187500 1.000000 -0.000000 0.000000
0.250000 -0.125000 -0.218750 1.000000 -0.000000 0.000000
0.250000 -0.031250 -0.218750 1.000000 -0.000000 0.000000
0.250000 -0.031250 -0.187500 1.000000 -0.000000 0.000000
0.250000 -0.062500 -0.187500 1.000000 -0.000000 0.000000
0.250000 -0.062500 -0.218750 1.000000 -0.000000 0.000000
0.250000 0.031250 -0.218750 1.000000 -0.000000 0.000000
0.250000 0.031250 -0.187500 1.000000 -0.000000 0.000000
0.250000 0.000000 -0.187500 1.000000 -0.000000 0.000000
0.250000 0.000000 -0.218750 1.000000 -0.000000 0.000000
0.250000 0.093750 -0.218750 1.000000 -0.000000 0.000000
0.250000 0.093750 -0.187500 1.000000 -0.000000 0.000000
0.250000 0.062500 -0.187500 1.000000 -0.000000 0.000000
0.250000 0.062500 -0.218750 1.000000 -0.000000 0.000000
0.250000 0.156250 -0.218750 1.000000 -0.000000 0.000000
0.250000 0.156250 -0.187500 1.000000 -0.000000 0.000000
0.250000 0.125000 -0.187500 1.000000 -0.000000 0.000000
0.250000 0.125000 -0.218750 1.000000 -0.000000 0.000000
-0.156250 0.250000 -0.156250 0.000000 1.000000 0.000000
-0.156250 0.250000 -0.125000 0.000000 1.000000 0.000000
-0.125000 0.250000 -0.125000 0.000000 1.000000 0.000000
-0.125000 0.250000 -0.156250 0.000000 1.000000 0.000000
-0.156250 0.250000 -0.093750 0.000000 1.000000 0.000000
-0.156250 0.250000 -0.062500 0.000000 1.000000 0.000000
-0.125000 0.250000 -0.062500 0.000000 1.000000 0.000000
-0.125000 0.250000 -0.093750 0.000000 1.000000 0.000000
-0.156250 0.250000 -0.031250 0.000000 1.000000 -0.000001
-0.156250 0.250000 0.000000 0.000000 1.000000 -0.000001
-0.125000 0.250000 0.000000 0.000000 1.000000 -0.000001
-0.125000 0.250000 -0.031250 0.000000 1.000000 -0.000001
-0.156250 0.250000 0.031250 0.000000 1.000000 0.000000
-0.156250 0.250000 0.062500 0.000000 1.000000 0.000000
-0.125000 0.250000 0.062500 0.000000 1.000000 0.000000
-0.125000 0.250000 0.031250 0.000000 1.000000 0.000000
-0.156250 0.250000 0.093750 -0.000001 1.000000 0.000000
-0.156250 0.250000 0.125000 -0.000001 1.000000 0.000000
-0.125000 0.250000 0.125000 -0.000001 1.000000 0.000000
-0.125000 0.250000 0.093750 -0.000001 1.000000 0.000000
-0.156250 0.250000 0.156250 -0.000001 1.000000 0.000000
-0.156250 0.250000 0.187500 -0.000001 1.000000 0.000000
-0.125000 0.250000 0.187500 -0.000001 1.000000 0.000000
-0.125000 0.250000 0.156250 -0.000001 1.000000 0.000000
-0.093750 0.250000 -0.156250 -0.000000 1.000000 -0.000000
-0.093750 0.250000 -0.125000 -0.000000 1.000000 -0.000000
-0.062500 0.250000 -0.125000 -0.000000 1.000000 -0.000000
-0.062500 0.250000 -0.156250 -0.000000 1.000000 -0.000000
-0.093750 0.250000 -0.093750 0.000000 1.000000 0.000000
-0.093750 0.250000 -0.062500 0.000000 1.000000 0.000000
-0.062500 0.250000 -0.062500 0.000000 1.000000 0.000000
-0.062500 0.250000 -0.093750 0.000000 1.000000 0.000000
-0.093750 0.250000 -0.031250 0.000000 1.000000 -0.000001
-0.093750 0.250000 0.000000 0.000000 1.000000 -0.000001
-0.062500 0.250000 0.000000 0.000000 1.000000 -0.000001
-0.062500 0.250000 -0.031250 0.000000 1.000000 -0.000001
-0.093750 0.250000 0.031250 0.000000 1.000000 0.000000
-0.093750 0.250000 0.062500 0.000000 1.000000 0.000000
-0.062500 0.250000 0.062500 0.000000 1.000000 0.000000
-0.062500 0.250000 0.031250 0.000000 1.000000 0.000000
-0.093750 0.250000 0.093750 0.000000 1.000000 -0.000001
-0.093750 0.250000 0.125000 0.000000 1.000000 -0.000001
-0.062500 0.250000 0.125000 0.000000 1.000000 -0.000001
-0.062500 0.250000 0.093750 0.000000 1.000000 -0.000001
-0.093750 0.250000 0.156250 0.000000 1.000000 0.000000
-0.093750 0.250000 0.187500 0.000000 1.000000 0.000000
-0.062500 0.250000 0.187500 0.000000 1.000000 0.000000
-0.062500 0.250000 0.156250 0.000000 1.000000 0.000000
